VERSION
FIELDS x y z
SIZE 4 4 4
TYPE F F F
COUNT 1 1 1
WIDTH 1822
HEIGHT 1
VIEWPOINT 0 0 0 1 0 0 0
POINTS 1822
DATA ascii
0.954716 0.351352 1.6316
0.963741 0.351811 1.63356
0.972202 0.35204 1.63454
0.981261 0.352499 1.63649
0.989745 0.352728 1.63747
0.995848 0.35204 1.63454
1.00433 0.35227 1.63551
1.01404 0.352958 1.63845
1.02255 0.353187 1.63943
1.03046 0.353187 1.63943
1.03774 0.352958 1.63845
1.04439 0.352499 1.63649
1.05102 0.35204 1.63454
1.05827 0.351811 1.63356
1.06551 0.351582 1.63258
1.07338 0.351582 1.63258
1.08125 0.351582 1.63258
1.09043 0.35204 1.63454
1.09963 0.352499 1.63649
1.10952 0.353187 1.63943
1.11943 0.353875 1.64236
1.12937 0.354563 1.64529
1.13934 0.355251 1.64823
1.14865 0.355709 1.65019
1.15798 0.356168 1.65214
1.16664 0.356397 1.65312
1.17531 0.356627 1.6541
1.18329 0.356627 1.6541
1.19056 0.356397 1.65312
1.19782 0.356168 1.65214
1.20435 0.355709 1.65019
1.21159 0.35548 1.64921
1.21954 0.35548 1.64921
1.2275 0.35548 1.64921
1.23618 0.355709 1.65019
1.24414 0.355709 1.65019
1.2521 0.355709 1.65019
1.25332 0.353646 1.64138
1.25897 0.352958 1.63845
1.26687 0.352958 1.63845
1.27553 0.353187 1.63943
1.28498 0.353646 1.64138
1.29521 0.354334 1.64432
1.30547 0.355021 1.64725
1.31341 0.355021 1.64725
1.32136 0.355021 1.64725
1.3293 0.355021 1.64725
1.33645 0.354792 1.64627
1.34278 0.354334 1.64432
1.3491 0.353875 1.64236
1.3554 0.353416 1.6404
1.35923 0.35227 1.63551
1.36384 0.351352 1.6316
1.36841 0.350435 1.62769
1.37377 0.349747 1.62475
1.3791 0.349059 1.62182
1.38524 0.348601 1.61986
1.39221 0.348371 1.61889
1.40002 0.348371 1.61889
1.40868 0.348601 1.61986
1.41735 0.34883 1.62084
1.42689 0.349289 1.6228
1.43558 0.349518 1.62378
1.44428 0.349747 1.62475
1.45299 0.349977 1.62573
1.46171 0.350206 1.62671
1.47222 0.350894 1.62965
1.48275 0.351582 1.63258
1.496 0.352958 1.63845
1.5111 0.354792 1.64627
1.52628 0.356627 1.6541
1.54336 0.35892 1.66388
1.55961 0.360984 1.67268
1.57504 0.362818 1.68051
1.58961 0.364423 1.68735
1.60239 0.36557 1.69224
1.61335 0.366258 1.69518
1.62435 0.366946 1.69811
1.63442 0.367404 1.70007
1.64357 0.367634 1.70105
1.65272 0.367863 1.70203
1.66093 0.367863 1.70203
1.66914 0.367863 1.70203
1.67735 0.367863 1.70203
1.68459 0.367634 1.70105
1.69181 0.367404 1.70007
1.70001 0.367404 1.70007
1.70723 0.367175 1.69909
1.71542 0.367175 1.69909
-0.820254 0.329814 1.50798
-0.812973 0.329814 1.50798
-0.806215 0.330048 1.50896
-0.79893 0.330048 1.50896
-0.792158 0.330282 1.50993
-0.784867 0.330282 1.50993
-0.777577 0.330282 1.50993
-0.770286 0.330282 1.50993
-0.762995 0.330282 1.50993
-0.755705 0.330282 1.50993
-0.748414 0.330282 1.50993
-0.741605 0.330515 1.51091
-0.734785 0.330749 1.51189
-0.728428 0.331217 1.51384
-0.721586 0.331451 1.51482
-0.715195 0.331918 1.51677
-0.707872 0.331918 1.51677
-0.701 0.332152 1.51775
-0.693672 0.332152 1.51775
-0.686787 0.332386 1.51872
-0.679454 0.332386 1.51872
-0.672554 0.33262 1.5197
-0.665216 0.33262 1.5197
-0.657878 0.33262 1.5197
-0.65054 0.33262 1.5197
-0.642788 0.332386 1.51872
-0.635455 0.332386 1.51872
-0.628121 0.332386 1.51872
-0.620788 0.332386 1.51872
-0.613455 0.332386 1.51872
-0.606513 0.33262 1.5197
-0.599561 0.332853 1.52068
-0.592219 0.332853 1.52068
-0.585253 0.333087 1.52165
-0.577906 0.333087 1.52165
-0.570191 0.332853 1.52068
-0.562848 0.332853 1.52068
-0.555506 0.332853 1.52068
-0.548163 0.332853 1.52068
-0.541169 0.333087 1.52165
-0.534165 0.333321 1.52263
-0.527152 0.333555 1.52361
-0.519795 0.333555 1.52361
-0.512768 0.333789 1.52458
-0.505731 0.334022 1.52556
-0.498365 0.334022 1.52556
-0.491314 0.334256 1.52654
-0.484564 0.334724 1.52849
-0.47749 0.334957 1.52947
-0.470707 0.335425 1.53142
-0.463609 0.335659 1.5324
-0.456501 0.335893 1.53337
-0.449384 0.336126 1.53435
-0.441975 0.336126 1.53435
-0.434843 0.33636 1.53533
-0.427703 0.336594 1.5363
-0.420552 0.336828 1.53728
-0.413393 0.337062 1.53826
-0.406223 0.337295 1.53923
-0.399045 0.337529 1.54021
-0.391857 0.337763 1.54119
-0.384659 0.337997 1.54216
-0.377452 0.338231 1.54314
-0.370235 0.338464 1.54412
-0.36347 0.339166 1.54704
-0.360509 0.343842 1.56658
-0.355813 0.346881 1.57927
-0.136955 0.140672 0.717915
-0.134599 0.142075 0.723775
-0.131473 0.142542 0.725728
-0.127982 0.142542 0.725728
-0.12449 0.142542 0.725728
-0.120835 0.142309 0.724751
-0.117348 0.142309 0.724751
-0.113861 0.142309 0.724751
-0.110374 0.142309 0.724751
-0.106888 0.142309 0.724751
-0.103541 0.142542 0.725728
-0.100049 0.142542 0.725728
-0.0966888 0.142776 0.726704
-0.0933186 0.14301 0.727681
-0.089939 0.143244 0.728657
-0.0864333 0.143244 0.728657
-0.0829276 0.143244 0.728657
-0.079529 0.143478 0.729634
-0.0760186 0.143478 0.729634
-0.0725081 0.143478 0.729634
-0.0689976 0.143478 0.729634
-0.0655755 0.143711 0.730611
-0.0621438 0.143945 0.731587
-0.0586239 0.143945 0.731587
-0.055104 0.143945 0.731587
-0.0516534 0.144179 0.732564
-0.0481287 0.144179 0.732564
-0.0446041 0.144179 0.732564
-0.0410794 0.144179 0.732564
-0.0375548 0.144179 0.732564
-0.0340301 0.144179 0.732564
-0.0305055 0.144179 0.732564
-0.027017 0.144413 0.73354
-0.0234876 0.144413 0.73354
-0.0199583 0.144413 0.73354
-0.0164289 0.144413 0.73354
-0.0129168 0.144647 0.734517
-0.00938269 0.144647 0.734517
-0.0058564 0.14488 0.735494
-0.00232066 0.145114 0.73647
0.00122455 0.145348 0.737447
0.00478558 0.145816 0.7394
0.00835444 0.146049 0.740377
0.0119328 0.146283 0.741353
0.0155 0.146283 0.741353
0.0190925 0.146517 0.74233
0.0226645 0.146517 0.74233
0.0262364 0.146517 0.74233
0.0298084 0.146517 0.74233
0.0333804 0.146517 0.74233
0.0369034 0.146283 0.741353
0.0404706 0.146283 0.741353
0.0439794 0.146049 0.740377
0.0475419 0.146049 0.740377
0.0511044 0.146049 0.740377
0.0545943 0.145816 0.7394
0.0581521 0.145816 0.7394
0.0617919 0.146049 0.740377
0.0653544 0.146049 0.740377
0.0690084 0.146283 0.741353
0.0725757 0.146283 0.741353
0.0763449 0.146751 0.743306
0.0800273 0.146985 0.744283
0.0837191 0.147218 0.74526
0.0874205 0.147452 0.746236
0.0911313 0.147686 0.747213
0.0948515 0.14792 0.748189
0.0984519 0.14792 0.748189
0.102186 0.148154 0.749166
0.105791 0.148154 0.749166
0.109396 0.148154 0.749166
0.113002 0.148154 0.749166
0.116607 0.148154 0.749166
0.120212 0.148154 0.749166
0.123817 0.148154 0.749166
0.127422 0.148154 0.749166
0.131027 0.148154 0.749166
0.134632 0.148154 0.749166
0.138237 0.148154 0.749166
0.141842 0.148154 0.749166
0.145638 0.148387 0.750143
0.149248 0.148387 0.750143
0.153058 0.148621 0.751119
0.156878 0.148855 0.752096
0.160497 0.148855 0.752096
0.164331 0.149089 0.753072
0.168174 0.149322 0.754049
0.171803 0.149322 0.754049
0.17566 0.149556 0.755026
0.179294 0.149556 0.755026
0.182927 0.149556 0.755026
0.186561 0.149556 0.755026
0.189946 0.149322 0.754049
0.193323 0.149089 0.753072
0.19669 0.148855 0.752096
0.200047 0.148621 0.751119
0.203129 0.148154 0.749166
0.206462 0.14792 0.748189
0.209511 0.147452 0.746236
0.212259 0.146751 0.743306
0.21555 0.146517 0.74233
0.218252 0.145816 0.7394
0.221219 0.145348 0.737447
0.521047 0.358103 1.62615
0.528582 0.35787 1.62517
0.536431 0.35787 1.62517
0.544936 0.358337 1.62713
0.553127 0.358571 1.6281
0.561665 0.359039 1.63006
0.569537 0.359039 1.63006
0.577757 0.359272 1.63103
0.585282 0.359039 1.63006
0.592798 0.358805 1.62908
0.600666 0.358805 1.62908
0.608168 0.358571 1.6281
0.61566 0.358337 1.62713
0.623143 0.358103 1.62615
0.630997 0.358103 1.62615
0.638466 0.35787 1.62517
0.646315 0.35787 1.62517
0.653769 0.357636 1.6242
0.661613 0.357636 1.6242
0.669054 0.357402 1.62322
0.676893 0.357402 1.62322
0.685146 0.357636 1.6242
0.69299 0.357636 1.6242
0.701256 0.35787 1.62517
0.709533 0.358103 1.62615
0.717819 0.358337 1.62713
0.726114 0.358571 1.6281
0.734418 0.358805 1.62908
0.742732 0.359039 1.63006
0.751056 0.359272 1.63103
0.758933 0.359272 1.63103
0.767271 0.359506 1.63201
0.775618 0.35974 1.63299
0.783505 0.35974 1.63299
0.791867 0.359974 1.63396
0.799758 0.359974 1.63396
0.807649 0.359974 1.63396
0.815052 0.35974 1.63299
0.822445 0.359506 1.63201
0.828832 0.358805 1.62908
0.83519 0.358103 1.62615
0.841012 0.357168 1.62224
0.846284 0.355999 1.61736
0.851508 0.35483 1.61248
0.857207 0.353895 1.60857
0.863396 0.353194 1.60564
0.870087 0.352726 1.60369
0.876759 0.352259 1.60173
0.884494 0.352259 1.60173
0.89223 0.352259 1.60173
0.900515 0.352492 1.60271
0.908811 0.352726 1.60369
0.917115 0.35296 1.60466
0.925994 0.353427 1.60662
0.934322 0.353661 1.60759
0.943234 0.354129 1.60955
0.951586 0.354363 1.61052
0.960531 0.35483 1.61248
0.968907 0.355064 1.61345
0.977292 0.355298 1.61443
0.984491 0.355064 1.61345
0.992283 0.355064 1.61345
1.00129 0.355532 1.61541
1.0097 0.355765 1.61638
1.01689 0.355532 1.61541
1.02469 0.355532 1.61541
1.03187 0.355298 1.61443
1.03904 0.355064 1.61345
1.04683 0.355064 1.61345
1.05462 0.355064 1.61345
1.06306 0.355298 1.61443
1.0715 0.355532 1.61541
1.08061 0.355999 1.61736
1.08974 0.356467 1.61931
1.09956 0.357168 1.62224
1.1094 0.35787 1.62517
1.11927 0.358571 1.6281
1.12916 0.359272 1.63103
1.13909 0.359974 1.63396
1.14836 0.360441 1.63592
1.15695 0.360675 1.63689
1.16486 0.360675 1.63689
1.17276 0.360675 1.63689
1.17996 0.360441 1.63592
1.18715 0.360208 1.63494
1.19433 0.359974 1.63396
1.2015 0.35974 1.63299
1.20866 0.359506 1.63201
1.21654 0.359506 1.63201
1.22443 0.359506 1.63201
1.23305 0.35974 1.63299
1.24093 0.35974 1.63299
1.24582 0.358805 1.62908
1.25294 0.358571 1.6281
1.26156 0.358805 1.62908
1.27019 0.359039 1.63006
1.2796 0.359506 1.63201
1.2898 0.360208 1.63494
1.29925 0.360675 1.63689
1.30794 0.360909 1.63787
1.31585 0.360909 1.63787
1.32376 0.360909 1.63787
1.33008 0.360441 1.63592
1.33718 0.360208 1.63494
1.34346 0.35974 1.63299
1.34973 0.359272 1.63103
1.35516 0.358571 1.6281
1.36056 0.35787 1.62517
1.36593 0.357168 1.62224
1.37128 0.356467 1.61931
1.3766 0.355765 1.61638
1.38357 0.355532 1.61541
1.39052 0.355298 1.61443
1.39832 0.355298 1.61443
1.40697 0.355532 1.61541
1.41563 0.355765 1.61638
1.42516 0.356233 1.61834
1.43384 0.356467 1.61931
1.44254 0.356701 1.62029
1.45124 0.356934 1.62127
1.46083 0.357402 1.62322
1.47133 0.358103 1.62615
1.48275 0.359039 1.63006
1.4951 0.360208 1.63494
1.5093 0.361844 1.64177
1.52447 0.363715 1.64959
1.53972 0.365585 1.6574
1.55504 0.367455 1.66521
1.5686 0.368858 1.67107
1.58129 0.370027 1.67596
1.5931 0.370962 1.67986
1.60308 0.37143 1.68182
1.61402 0.372131 1.68474
1.6231 0.372365 1.68572
1.63219 0.372599 1.6867
1.64129 0.372833 1.68767
1.6504 0.373066 1.68865
1.65856 0.373066 1.68865
1.66671 0.373066 1.68865
1.67487 0.373066 1.68865
1.68303 0.373066 1.68865
1.69118 0.373066 1.68865
1.69934 0.373066 1.68865
1.7075 0.373066 1.68865
-0.806397 0.330516 1.48029
-0.799239 0.330516 1.48029
-0.792604 0.330754 1.48127
-0.78596 0.330992 1.48224
-0.778792 0.330992 1.48224
-0.772134 0.33123 1.48322
-0.764962 0.33123 1.48322
-0.757789 0.33123 1.48322
-0.750617 0.33123 1.48322
-0.743445 0.33123 1.48322
-0.736272 0.33123 1.48322
-0.729581 0.331469 1.48419
-0.72288 0.331707 1.48517
-0.716641 0.332183 1.48712
-0.710384 0.33266 1.48907
-0.703645 0.332898 1.49005
-0.696897 0.333137 1.49102
-0.689687 0.333137 1.49102
-0.682477 0.333137 1.49102
-0.675266 0.333137 1.49102
-0.668495 0.333375 1.492
-0.66128 0.333375 1.492
-0.654065 0.333375 1.492
-0.64685 0.333375 1.492
-0.639635 0.333375 1.492
-0.632005 0.333137 1.49102
-0.624795 0.333137 1.49102
-0.61718 0.332898 1.49005
-0.610375 0.333137 1.49102
-0.603561 0.333375 1.492
-0.596737 0.333613 1.49297
-0.589517 0.333613 1.49297
-0.582679 0.333851 1.49395
-0.575455 0.333851 1.49395
-0.56823 0.333851 1.49395
-0.561006 0.333851 1.49395
-0.553782 0.333851 1.49395
-0.546557 0.333851 1.49395
-0.539333 0.333851 1.49395
-0.532457 0.33409 1.49492
-0.525572 0.334328 1.4959
-0.518338 0.334328 1.4959
-0.511438 0.334566 1.49687
-0.5042 0.334566 1.49687
-0.497286 0.334804 1.49785
-0.490363 0.335043 1.49882
-0.48343 0.335281 1.4998
-0.476488 0.335519 1.50077
-0.469842 0.335996 1.50272
-0.462877 0.336234 1.5037
-0.456198 0.336711 1.50565
-0.449209 0.336949 1.50662
-0.441923 0.336949 1.50662
-0.434919 0.337187 1.5076
-0.427906 0.337426 1.50857
-0.420883 0.337664 1.50955
-0.413583 0.337664 1.50955
-0.406547 0.337902 1.51052
-0.3995 0.33814 1.5115
-0.392445 0.338379 1.51247
-0.38538 0.338617 1.51345
-0.378061 0.338617 1.51345
-0.370981 0.338855 1.51442
-0.364127 0.339332 1.51637
-0.357715 0.340285 1.52027
-0.358029 0.348386 1.55343
-0.136393 0.143229 0.713882
-0.133502 0.143943 0.716808
-0.130226 0.144182 0.717783
-0.126768 0.144182 0.717783
-0.123309 0.144182 0.717783
-0.119851 0.144182 0.717783
-0.116393 0.144182 0.717783
-0.11278 0.143943 0.716808
-0.109476 0.144182 0.717783
-0.106017 0.144182 0.717783
-0.102559 0.144182 0.717783
-0.0992361 0.14442 0.718758
-0.0959038 0.144658 0.719733
-0.0924359 0.144658 0.719733
-0.0892108 0.145135 0.721683
-0.0856168 0.144896 0.720708
-0.0822561 0.145135 0.721683
-0.0787787 0.145135 0.721683
-0.0753014 0.145135 0.721683
-0.0719218 0.145373 0.722658
-0.0684397 0.145373 0.722658
-0.0649576 0.145373 0.722658
-0.0615591 0.145611 0.723633
-0.0580723 0.145611 0.723633
-0.0546596 0.14585 0.724608
-0.051168 0.14585 0.724608
-0.0476765 0.14585 0.724608
-0.044185 0.14585 0.724608
-0.0406934 0.14585 0.724608
-0.0372019 0.14585 0.724608
-0.0337104 0.14585 0.724608
-0.0302188 0.14585 0.724608
-0.0267273 0.14585 0.724608
-0.0232358 0.14585 0.724608
-0.019771 0.146088 0.725583
-0.0162747 0.146088 0.725583
-0.0127785 0.146088 0.725583
-0.00929476 0.146326 0.726558
-0.0058016 0.146564 0.727534
-0.00229897 0.146803 0.728509
0.00121312 0.147041 0.729484
0.00473467 0.147279 0.730459
0.00826569 0.147518 0.731434
0.0118062 0.147756 0.732409
0.0153561 0.147994 0.733384
0.0188902 0.147994 0.733384
0.0224243 0.147994 0.733384
0.0259584 0.147994 0.733384
0.0294925 0.147994 0.733384
0.0330267 0.147994 0.733384
0.0365608 0.147994 0.733384
0.0400412 0.147756 0.732409
0.0435706 0.147756 0.732409
0.0471 0.147756 0.732409
0.0506294 0.147756 0.732409
0.0541587 0.147756 0.732409
0.0576881 0.147756 0.732409
0.0612175 0.147756 0.732409
0.0647469 0.147756 0.732409
0.0683678 0.147994 0.733384
0.0719981 0.148232 0.734359
0.075638 0.148471 0.735334
0.0791815 0.148471 0.735334
0.0828356 0.148709 0.736309
0.0864991 0.148947 0.737284
0.090172 0.149185 0.738259
0.0938544 0.149424 0.739234
0.0974169 0.149424 0.739234
0.101114 0.149662 0.74021
0.104681 0.149662 0.74021
0.108248 0.149662 0.74021
0.111815 0.149662 0.74021
0.115382 0.149662 0.74021
0.11895 0.149662 0.74021
0.122517 0.149662 0.74021
0.126084 0.149662 0.74021
0.129651 0.149662 0.74021
0.133219 0.149662 0.74021
0.136967 0.1499 0.741185
0.140539 0.1499 0.741185
0.144302 0.150139 0.74216
0.147879 0.150139 0.74216
0.151656 0.150377 0.743135
0.155442 0.150615 0.74411
0.159238 0.150853 0.745085
0.163044 0.151092 0.74606
0.166639 0.151092 0.74606
0.170235 0.151092 0.74606
0.174059 0.15133 0.747035
0.17766 0.15133 0.747035
0.18126 0.15133 0.747035
0.184617 0.151092 0.74606
0.188213 0.151092 0.74606
0.191556 0.150853 0.745085
0.195147 0.150853 0.745085
0.198476 0.150615 0.74411
0.201529 0.150139 0.74216
0.204834 0.1499 0.741185
0.20813 0.149662 0.74021
0.211417 0.149424 0.739234
0.214694 0.149185 0.738259
0.217381 0.148471 0.735334
0.22063 0.148232 0.734359
0.223569 0.147756 0.732409
0.518067 0.357441 1.59048
0.52576 0.357441 1.59048
0.533781 0.357679 1.59145
0.541811 0.357918 1.59243
0.549851 0.358156 1.5934
0.5579 0.358394 1.59438
0.565959 0.358632 1.59535
0.573675 0.358632 1.59535
0.581392 0.358632 1.59535
0.589108 0.358632 1.59535
0.596824 0.358632 1.59535
0.604541 0.358632 1.59535
0.611882 0.358394 1.59438
0.619593 0.358394 1.59438
0.627305 0.358394 1.59438
0.634627 0.358156 1.5934
0.642334 0.358156 1.5934
0.649642 0.357918 1.59243
0.657344 0.357918 1.59243
0.665046 0.357918 1.59243
0.672748 0.357918 1.59243
0.680869 0.358156 1.5934
0.688576 0.358156 1.5934
0.69671 0.358394 1.59438
0.704854 0.358632 1.59535
0.713007 0.358871 1.59633
0.72117 0.359109 1.5973
0.729342 0.359347 1.59828
0.737072 0.359347 1.59828
0.745259 0.359585 1.59925
0.753455 0.359824 1.60023
0.76166 0.360062 1.6012
0.769875 0.3603 1.60218
0.778099 0.360539 1.60315
0.785853 0.360539 1.60315
0.794092 0.360777 1.60413
0.801851 0.360777 1.60413
0.809116 0.360539 1.60315
0.816372 0.3603 1.60218
0.823115 0.359824 1.60023
0.829839 0.359347 1.59828
0.836032 0.358632 1.59535
0.842197 0.357918 1.59243
0.848333 0.357203 1.5895
0.854967 0.356726 1.58755
0.861583 0.35625 1.5856
0.868715 0.356011 1.58463
0.875839 0.355773 1.58365
0.883498 0.355773 1.58365
0.891158 0.355773 1.58365
0.898818 0.355773 1.58365
0.907037 0.356011 1.58463
0.915266 0.35625 1.5856
0.923505 0.356488 1.58658
0.932326 0.356964 1.58853
0.940589 0.357203 1.5895
0.94886 0.357441 1.59048
0.957141 0.357679 1.59145
0.965432 0.357918 1.59243
0.972536 0.357679 1.59145
0.980836 0.357918 1.59243
0.989145 0.358156 1.5934
0.996852 0.358156 1.5934
1.00456 0.358156 1.5934
1.01227 0.358156 1.5934
1.01997 0.358156 1.5934
1.02768 0.358156 1.5934
1.03539 0.358156 1.5934
1.04373 0.358394 1.59438
1.05209 0.358632 1.59535
1.06111 0.359109 1.5973
1.07014 0.359585 1.59925
1.07985 0.3603 1.60218
1.08893 0.360777 1.60413
1.0987 0.361492 1.60705
1.10849 0.362206 1.60998
1.11831 0.362921 1.61291
1.12748 0.363398 1.61486
1.13667 0.363874 1.61681
1.14518 0.364113 1.61778
1.1537 0.364351 1.61876
1.16153 0.364351 1.61876
1.16865 0.364113 1.61778
1.17648 0.364113 1.61778
1.18359 0.363874 1.61681
1.19069 0.363636 1.61583
1.19778 0.363398 1.61486
1.20559 0.363398 1.61486
1.2134 0.363398 1.61486
1.22195 0.363636 1.61583
1.23051 0.363874 1.61681
1.23683 0.363398 1.61486
1.24464 0.363398 1.61486
1.25321 0.363636 1.61583
1.26256 0.364113 1.61778
1.27192 0.364589 1.61973
1.2813 0.365066 1.62168
1.2907 0.365542 1.62363
1.29933 0.365781 1.62461
1.30719 0.365781 1.62461
1.31505 0.365781 1.62461
1.32211 0.365542 1.62363
1.32916 0.365304 1.62266
1.3354 0.364828 1.62071
1.34243 0.364589 1.61973
1.34782 0.363874 1.61681
1.354 0.363398 1.61486
1.36016 0.362921 1.61291
1.3663 0.362445 1.61096
1.37243 0.361968 1.609
1.37937 0.36173 1.60803
1.3863 0.361492 1.60705
1.39493 0.36173 1.60803
1.40356 0.361968 1.609
1.4122 0.362206 1.60998
1.42085 0.362445 1.61096
1.43037 0.362921 1.61291
1.43905 0.36316 1.61388
1.44773 0.363398 1.61486
1.45731 0.363874 1.61681
1.46778 0.364589 1.61973
1.47918 0.365542 1.62363
1.49152 0.366734 1.62851
1.5048 0.368163 1.63436
1.51904 0.369831 1.64118
1.53244 0.371261 1.64703
1.54589 0.372691 1.65288
1.55849 0.373882 1.65776
1.56928 0.374597 1.66068
1.5801 0.375312 1.66361
1.59001 0.375788 1.66556
1.59995 0.376265 1.66751
1.60896 0.376503 1.66848
1.61798 0.376742 1.66946
1.627 0.37698 1.67043
1.63604 0.377218 1.67141
1.64509 0.377456 1.67238
1.65318 0.377456 1.67238
1.66127 0.377456 1.67238
1.66936 0.377456 1.67238
1.67843 0.377695 1.67336
1.68653 0.377695 1.67336
1.69462 0.377695 1.67336
-0.793072 0.331227 1.45366
-0.786561 0.33147 1.45463
-0.779516 0.33147 1.45463
-0.77299 0.331712 1.45561
-0.765941 0.331712 1.45561
-0.759401 0.331955 1.45658
-0.752347 0.331955 1.45658
-0.745293 0.331955 1.45658
-0.738239 0.331955 1.45658
-0.731185 0.331955 1.45658
-0.724616 0.332198 1.45755
-0.718039 0.332441 1.45853
-0.711451 0.332683 1.4595
-0.705326 0.333169 1.46145
-0.698715 0.333412 1.46242
-0.692095 0.333654 1.4634
-0.685465 0.333897 1.46437
-0.678373 0.333897 1.46437
-0.671281 0.333897 1.46437
-0.664189 0.333897 1.46437
-0.657536 0.33414 1.46534
-0.650439 0.33414 1.46534
-0.643342 0.33414 1.46534
-0.636246 0.33414 1.46534
-0.62873 0.333897 1.46437
-0.621638 0.333897 1.46437
-0.614136 0.333654 1.4634
-0.607049 0.333654 1.4634
-0.600362 0.333897 1.46437
-0.593666 0.33414 1.46534
-0.586961 0.334383 1.46632
-0.580246 0.334625 1.46729
-0.573521 0.334868 1.46826
-0.56641 0.334868 1.46826
-0.559299 0.334868 1.46826
-0.552189 0.334868 1.46826
-0.545078 0.334868 1.46826
-0.537967 0.334868 1.46826
-0.530856 0.334868 1.46826
-0.524094 0.335111 1.46924
-0.516978 0.335111 1.46924
-0.510202 0.335354 1.47021
-0.503082 0.335354 1.47021
-0.496291 0.335596 1.47118
-0.489166 0.335596 1.47118
-0.482361 0.335839 1.47216
-0.475547 0.336082 1.47313
-0.468723 0.336325 1.47411
-0.462195 0.33681 1.47605
-0.455348 0.337053 1.47703
-0.448787 0.337538 1.47897
-0.441916 0.337781 1.47995
-0.434749 0.337781 1.47995
-0.427863 0.338024 1.48092
-0.420968 0.338267 1.48189
-0.413791 0.338267 1.48189
-0.406882 0.33851 1.48287
-0.399964 0.338752 1.48384
-0.393036 0.338995 1.48481
-0.385845 0.338995 1.48481
-0.378903 0.339238 1.48579
-0.371707 0.339238 1.48579
-0.36475 0.339481 1.48676
-0.357785 0.339723 1.48774
-0.3515 0.340694 1.49163
-0.135642 0.145515 0.708885
-0.13277 0.146244 0.711806
-0.129335 0.146244 0.711806
-0.125901 0.146244 0.711806
-0.122466 0.146244 0.711806
-0.119031 0.146244 0.711806
-0.115596 0.146244 0.711806
-0.112162 0.146244 0.711806
-0.108727 0.146244 0.711806
-0.105292 0.146244 0.711806
-0.101857 0.146244 0.711806
-0.0985582 0.146486 0.71278
-0.0951188 0.146486 0.71278
-0.0918054 0.146729 0.713753
-0.0886039 0.147215 0.7157
-0.0850336 0.146972 0.714727
-0.0816965 0.147215 0.7157
-0.0782428 0.147215 0.7157
-0.0747892 0.147215 0.7157
-0.0713355 0.147215 0.7157
-0.0679748 0.147457 0.716674
-0.0645164 0.147457 0.716674
-0.0610579 0.147457 0.716674
-0.0576783 0.1477 0.717647
-0.0542152 0.1477 0.717647
-0.050752 0.1477 0.717647
-0.0473535 0.147943 0.718621
-0.0438856 0.147943 0.718621
-0.0404177 0.147943 0.718621
-0.0369499 0.147943 0.718621
-0.033482 0.147943 0.718621
-0.0300141 0.147943 0.718621
-0.0265462 0.147943 0.718621
-0.0230783 0.147943 0.718621
-0.0196105 0.147943 0.718621
-0.0161426 0.147943 0.718621
-0.012692 0.148186 0.719595
-0.0092194 0.148186 0.719595
-0.00575462 0.148429 0.720568
-0.00228038 0.148671 0.721542
0.00120332 0.148914 0.722515
0.00469649 0.149157 0.723489
0.00819912 0.1494 0.724462
0.0116954 0.1494 0.724462
0.0152122 0.149642 0.725436
0.0187132 0.149642 0.725436
0.0222142 0.149642 0.725436
0.0257152 0.149642 0.725436
0.0292162 0.149642 0.725436
0.0327172 0.149642 0.725436
0.0362182 0.149642 0.725436
0.0397192 0.149642 0.725436
0.0432202 0.149642 0.725436
0.0467211 0.149642 0.725436
0.0502221 0.149642 0.725436
0.0537231 0.149642 0.725436
0.0572241 0.149642 0.725436
0.0607251 0.149642 0.725436
0.0643129 0.149885 0.72641
0.0678186 0.149885 0.72641
0.0714206 0.150128 0.727383
0.0750321 0.150371 0.728357
0.0785472 0.150371 0.728357
0.0821729 0.150613 0.72933
0.085808 0.150856 0.730304
0.0893326 0.150856 0.730304
0.0929819 0.151099 0.731277
0.0965113 0.151099 0.731277
0.100175 0.151342 0.732251
0.103709 0.151342 0.732251
0.107243 0.151342 0.732251
0.110777 0.151342 0.732251
0.114311 0.151342 0.732251
0.117845 0.151342 0.732251
0.121542 0.151584 0.733225
0.125081 0.151584 0.733225
0.12862 0.151584 0.733225
0.132158 0.151584 0.733225
0.135879 0.151827 0.734198
0.139422 0.151827 0.734198
0.143157 0.15207 0.735172
0.146901 0.152313 0.736145
0.150454 0.152313 0.736145
0.154212 0.152555 0.737119
0.157979 0.152798 0.738092
0.161542 0.152798 0.738092
0.165104 0.152798 0.738092
0.168891 0.153041 0.739066
0.172458 0.153041 0.739066
0.176025 0.153041 0.739066
0.179593 0.153041 0.739066
0.18316 0.153041 0.739066
0.186727 0.153041 0.739066
0.190042 0.152798 0.738092
0.193604 0.152798 0.738092
0.196905 0.152555 0.737119
0.200196 0.152313 0.736145
0.203478 0.15207 0.735172
0.207026 0.15207 0.735172
0.210294 0.151827 0.734198
0.213552 0.151584 0.733225
0.2168 0.151342 0.732251
0.22004 0.151099 0.731277
0.223269 0.150856 0.730304
0.50819 0.357202 1.55783
0.515736 0.357202 1.55783
0.523283 0.357202 1.55783
0.531161 0.357445 1.55881
0.53905 0.357688 1.55978
0.546947 0.35793 1.56075
0.554855 0.358173 1.56173
0.56242 0.358173 1.56173
0.570341 0.358416 1.5627
0.578272 0.358659 1.56367
0.585847 0.358659 1.56367
0.593421 0.358659 1.56367
0.600995 0.358659 1.56367
0.60857 0.358659 1.56367
0.616144 0.358659 1.56367
0.623329 0.358416 1.5627
0.630899 0.358416 1.5627
0.638469 0.358416 1.5627
0.645635 0.358173 1.56173
0.6532 0.358173 1.56173
0.660765 0.358173 1.56173
0.668748 0.358416 1.5627
0.67674 0.358659 1.56367
0.684314 0.358659 1.56367
0.692321 0.358901 1.56465
0.700337 0.359144 1.56562
0.708363 0.359387 1.56659
0.715951 0.359387 1.56659
0.723991 0.35963 1.56757
0.73204 0.359872 1.56854
0.740099 0.360115 1.56951
0.748167 0.360358 1.57049
0.756245 0.360601 1.57146
0.764332 0.360843 1.57244
0.772428 0.361086 1.57341
0.780534 0.361329 1.57438
0.788649 0.361572 1.57536
0.796774 0.361814 1.57633
0.803912 0.361572 1.57536
0.811543 0.361572 1.57536
0.818159 0.361086 1.57341
0.825268 0.360843 1.57244
0.83185 0.360358 1.57049
0.838414 0.359872 1.56854
0.845485 0.35963 1.56757
0.852015 0.359144 1.56562
0.859063 0.358901 1.56465
0.866101 0.358659 1.56367
0.87313 0.358416 1.5627
0.8807 0.358416 1.5627
0.888269 0.358416 1.5627
0.895839 0.358416 1.5627
0.903973 0.358659 1.56367
0.912117 0.358901 1.56465
0.920271 0.359144 1.56562
0.928433 0.359387 1.56659
0.937189 0.359872 1.56854
0.944787 0.359872 1.56854
0.952978 0.360115 1.56951
0.960581 0.360115 1.56951
0.968786 0.360358 1.57049
0.976394 0.360358 1.57049
0.984613 0.360601 1.57146
0.992226 0.360601 1.57146
0.999838 0.360601 1.57146
1.00808 0.360843 1.57244
1.01569 0.360843 1.57244
1.02395 0.361086 1.57341
1.03221 0.361329 1.57438
1.04112 0.361814 1.57633
1.05006 0.3623 1.57828
1.05901 0.362786 1.58022
1.06799 0.363271 1.58217
1.07764 0.363999 1.58509
1.08666 0.364485 1.58704
1.09637 0.365213 1.58996
1.10543 0.365699 1.59191
1.1145 0.366184 1.59385
1.1236 0.36667 1.5958
1.13202 0.366912 1.59677
1.14046 0.367155 1.59775
1.1482 0.367155 1.59775
1.15594 0.367155 1.59775
1.16368 0.367155 1.59775
1.1707 0.366912 1.59677
1.17844 0.366912 1.59677
1.18545 0.36667 1.5958
1.19318 0.36667 1.5958
1.20164 0.366912 1.59677
1.21012 0.367155 1.59775
1.2186 0.367398 1.59872
1.2256 0.367155 1.59775
1.23409 0.367398 1.59872
1.24335 0.367883 1.60067
1.25187 0.368126 1.60164
1.26117 0.368612 1.60359
1.27048 0.369097 1.60554
1.27981 0.369583 1.60748
1.28838 0.369826 1.60846
1.29617 0.369826 1.60846
1.30397 0.369826 1.60846
1.31176 0.369826 1.60846
1.31875 0.369583 1.60748
1.32492 0.369097 1.60554
1.33189 0.368854 1.60456
1.33885 0.368612 1.60359
1.34498 0.368126 1.60164
1.35109 0.367641 1.59969
1.35801 0.367398 1.59872
1.36492 0.367155 1.59775
1.37182 0.366912 1.59677
1.37955 0.366912 1.59677
1.38729 0.366912 1.59677
1.39588 0.367155 1.59775
1.40533 0.367641 1.59969
1.41395 0.367883 1.60067
1.42343 0.368369 1.60262
1.43207 0.368612 1.60359
1.44159 0.369097 1.60554
1.45113 0.369583 1.60748
1.46158 0.370311 1.6104
1.47295 0.371282 1.6143
1.48435 0.372253 1.61819
1.49669 0.373467 1.62306
1.50908 0.374681 1.62793
1.52152 0.375895 1.6328
1.53309 0.376866 1.63669
1.54378 0.377594 1.63961
1.55449 0.378322 1.64253
1.56431 0.378808 1.64448
1.57321 0.37905 1.64545
1.58212 0.379293 1.64643
1.59104 0.379536 1.6474
1.59997 0.379779 1.64837
1.60986 0.380264 1.65032
1.61881 0.380507 1.65129
1.62777 0.38075 1.65227
1.63578 0.38075 1.65227
1.64475 0.380992 1.65324
1.65276 0.380992 1.65324
1.66175 0.381235 1.65421
1.66977 0.381235 1.65421
1.67778 0.381235 1.65421
-0.780281 0.331961 1.42807
-0.773354 0.331961 1.42807
-0.766952 0.332208 1.42905
-0.760539 0.332456 1.43002
-0.753604 0.332456 1.43002
-0.747177 0.332703 1.43099
-0.740237 0.332703 1.43099
-0.733296 0.332703 1.43099
-0.726851 0.33295 1.43196
-0.719906 0.33295 1.43196
-0.71296 0.33295 1.43196
-0.706496 0.333197 1.43293
-0.700022 0.333445 1.43391
-0.694011 0.333939 1.43585
-0.687513 0.334186 1.43682
-0.681006 0.334434 1.43779
-0.67449 0.334681 1.43877
-0.667512 0.334681 1.43877
-0.660533 0.334681 1.43877
-0.653555 0.334681 1.43877
-0.646577 0.334681 1.43877
-0.639598 0.334681 1.43877
-0.633049 0.334928 1.43974
-0.625642 0.334681 1.43877
-0.618663 0.334681 1.43877
-0.61127 0.334434 1.43779
-0.604297 0.334434 1.43779
-0.597323 0.334434 1.43779
-0.59075 0.334681 1.43877
-0.584168 0.334928 1.43974
-0.577576 0.335175 1.44071
-0.570974 0.335422 1.44168
-0.564363 0.33567 1.44265
-0.557366 0.33567 1.44265
-0.550369 0.33567 1.44265
-0.543371 0.33567 1.44265
-0.536374 0.33567 1.44265
-0.529735 0.335917 1.44363
-0.522733 0.335917 1.44363
-0.515731 0.335917 1.44363
-0.509072 0.336164 1.4446
-0.502066 0.336164 1.4446
-0.495059 0.336164 1.4446
-0.488052 0.336164 1.4446
-0.48137 0.336412 1.44557
-0.474359 0.336412 1.44557
-0.467663 0.336659 1.44654
-0.461268 0.337153 1.44849
-0.454548 0.3374 1.44946
-0.44812 0.337895 1.4514
-0.441377 0.338142 1.45238
-0.434624 0.338389 1.45335
-0.427861 0.338637 1.45432
-0.420807 0.338637 1.45432
-0.414031 0.338884 1.45529
-0.406972 0.338884 1.45529
-0.400181 0.339131 1.45626
-0.393381 0.339378 1.45724
-0.386313 0.339378 1.45724
-0.379499 0.339626 1.45821
-0.372675 0.339873 1.45918
-0.365597 0.339873 1.45918
-0.358759 0.34012 1.46015
-0.351677 0.34012 1.46015
-0.345055 0.340615 1.4621
-0.138486 0.148014 0.704873
-0.135267 0.148261 0.705845
-0.132222 0.148755 0.707789
-0.128801 0.148755 0.707789
-0.12538 0.148755 0.707789
-0.121791 0.148508 0.706817
-0.118375 0.148508 0.706817
-0.11496 0.148508 0.706817
-0.111544 0.148508 0.706817
-0.108128 0.148508 0.706817
-0.104712 0.148508 0.706817
-0.101437 0.148755 0.707789
-0.098016 0.148755 0.707789
-0.0947262 0.149003 0.708761
-0.0913009 0.149003 0.708761
-0.087997 0.14925 0.709733
-0.084567 0.14925 0.709733
-0.0812489 0.149497 0.710705
-0.0778141 0.149497 0.710705
-0.0743793 0.149497 0.710705
-0.0709446 0.149497 0.710705
-0.0676028 0.149744 0.711677
-0.0641633 0.149744 0.711677
-0.0607238 0.149744 0.711677
-0.0573631 0.149992 0.712649
-0.0539189 0.149992 0.712649
-0.0504747 0.149992 0.712649
-0.0470305 0.149992 0.712649
-0.0436461 0.150239 0.713621
-0.0401972 0.150239 0.713621
-0.0367482 0.150239 0.713621
-0.0332993 0.150239 0.713621
-0.0298094 0.149992 0.712649
-0.0263651 0.149992 0.712649
-0.0229524 0.150239 0.713621
-0.0195035 0.150239 0.713621
-0.0160545 0.150239 0.713621
-0.0126055 0.150239 0.713621
-0.00916916 0.150486 0.714593
-0.0057233 0.150733 0.715565
-0.00226489 0.150733 0.715565
0.00119516 0.150981 0.716537
0.00466467 0.151228 0.717509
0.00814364 0.151475 0.718481
0.0116162 0.151475 0.718481
0.0151094 0.151722 0.719453
0.0185868 0.151722 0.719453
0.0220641 0.151722 0.719453
0.0255414 0.151722 0.719453
0.0290188 0.151722 0.719453
0.0324961 0.151722 0.719453
0.0359734 0.151722 0.719453
0.0394508 0.151722 0.719453
0.0429281 0.151722 0.719453
0.0464055 0.151722 0.719453
0.0499507 0.15197 0.720425
0.0534327 0.15197 0.720425
0.0569148 0.15197 0.720425
0.0603969 0.15197 0.720425
0.063879 0.15197 0.720425
0.0674525 0.152217 0.721397
0.0709393 0.152217 0.721397
0.0745271 0.152464 0.722369
0.0781244 0.152711 0.723341
0.0816206 0.152711 0.723341
0.0852321 0.152958 0.724313
0.0887331 0.152958 0.724313
0.0923587 0.153206 0.725286
0.0958645 0.153206 0.725286
0.0995043 0.153453 0.726258
0.103015 0.153453 0.726258
0.106525 0.153453 0.726258
0.110036 0.153453 0.726258
0.113546 0.153453 0.726258
0.117214 0.1537 0.72723
0.12073 0.1537 0.72723
0.124245 0.1537 0.72723
0.12776 0.1537 0.72723
0.131452 0.153947 0.728202
0.134972 0.153947 0.728202
0.138678 0.154195 0.729174
0.142393 0.154442 0.730146
0.145923 0.154442 0.730146
0.149652 0.154689 0.731118
0.153186 0.154689 0.731118
0.15693 0.154936 0.73209
0.160469 0.154936 0.73209
0.164008 0.154936 0.73209
0.167771 0.155184 0.733062
0.171314 0.155184 0.733062
0.174858 0.155184 0.733062
0.178402 0.155184 0.733062
0.181945 0.155184 0.733062
0.185489 0.155184 0.733062
0.18878 0.154936 0.73209
0.192319 0.154936 0.73209
0.195596 0.154689 0.731118
0.19913 0.154689 0.731118
0.202393 0.154442 0.730146
0.205922 0.154442 0.730146
0.209451 0.154442 0.730146
0.212695 0.154195 0.729174
0.21622 0.154195 0.729174
0.21945 0.153947 0.728202
0.22267 0.1537 0.72723
0.225576 0.153206 0.725286
0.506036 0.356932 1.52625
0.51344 0.356932 1.52625
0.521177 0.35718 1.52722
0.528924 0.357427 1.52819
0.536679 0.357674 1.52917
0.544445 0.357921 1.53014
0.55222 0.358169 1.53111
0.560004 0.358416 1.53208
0.567436 0.358416 1.53208
0.575235 0.358663 1.53306
0.582672 0.358663 1.53306
0.590109 0.358663 1.53306
0.597927 0.35891 1.53403
0.605369 0.35891 1.53403
0.612421 0.358663 1.53306
0.619858 0.358663 1.53306
0.627295 0.358663 1.53306
0.634733 0.358663 1.53306
0.64217 0.358663 1.53306
0.649607 0.358663 1.53306
0.657462 0.35891 1.53403
0.664904 0.35891 1.53403
0.672774 0.359158 1.535
0.680221 0.359158 1.535
0.688104 0.359405 1.53597
0.695997 0.359652 1.53694
0.703453 0.359652 1.53694
0.711361 0.359899 1.53792
0.719277 0.360147 1.53889
0.727204 0.360394 1.53986
0.735139 0.360641 1.54083
0.743554 0.361136 1.54278
0.751514 0.361383 1.54375
0.759962 0.361877 1.54569
0.767945 0.362125 1.54666
0.775937 0.362372 1.54764
0.783939 0.362619 1.54861
0.79195 0.362866 1.54958
0.799468 0.362866 1.54958
0.806478 0.362619 1.54861
0.813991 0.362619 1.54861
0.820987 0.362372 1.54764
0.827451 0.361877 1.54569
0.834423 0.36163 1.54472
0.841385 0.361383 1.54375
0.848338 0.361136 1.54278
0.855282 0.360888 1.5418
0.862216 0.360641 1.54083
0.869141 0.360394 1.53986
0.876611 0.360394 1.53986
0.884081 0.360394 1.53986
0.892116 0.360641 1.54083
0.900161 0.360888 1.5418
0.908215 0.361136 1.54278
0.916278 0.361383 1.54375
0.924351 0.36163 1.54472
0.932433 0.361877 1.54569
0.940525 0.362125 1.54666
0.948028 0.362125 1.54666
0.956134 0.362372 1.54764
0.963643 0.362372 1.54764
0.971763 0.362619 1.54861
0.979276 0.362619 1.54861
0.98741 0.362866 1.54958
0.994928 0.362866 1.54958
1.00308 0.363114 1.55055
1.01123 0.363361 1.55152
1.0194 0.363608 1.5525
1.02822 0.364102 1.55444
1.03706 0.364597 1.55638
1.04592 0.365091 1.55833
1.05546 0.365833 1.56124
1.06436 0.366328 1.56319
1.07329 0.366822 1.56513
1.08223 0.367317 1.56708
1.09119 0.367811 1.56902
1.10016 0.368306 1.57096
1.10916 0.3688 1.57291
1.11818 0.369295 1.57485
1.12582 0.369295 1.57485
1.13416 0.369542 1.57583
1.14181 0.369542 1.57583
1.14945 0.369542 1.57583
1.1571 0.369542 1.57583
1.16402 0.369295 1.57485
1.17239 0.369542 1.57583
1.18003 0.369542 1.57583
1.18841 0.369789 1.5768
1.19606 0.369789 1.5768
1.20446 0.370036 1.57777
1.21286 0.370284 1.57874
1.22127 0.370531 1.57971
1.2297 0.370778 1.58069
1.23889 0.371273 1.58263
1.24811 0.371767 1.58457
1.25734 0.372261 1.58652
1.26582 0.372509 1.58749
1.2743 0.372756 1.58846
1.2828 0.373003 1.58943
1.29051 0.373003 1.58943
1.29822 0.373003 1.58943
1.30513 0.372756 1.58846
1.31203 0.372509 1.58749
1.31892 0.372261 1.58652
1.3258 0.372014 1.58555
1.33268 0.371767 1.58457
1.33954 0.37152 1.5836
1.34639 0.371273 1.58263
1.35324 0.371025 1.58166
1.36091 0.371025 1.58166
1.36858 0.371025 1.58166
1.37711 0.371273 1.58263
1.38564 0.37152 1.5836
1.39418 0.371767 1.58457
1.40359 0.372261 1.58652
1.41303 0.372756 1.58846
1.42248 0.37325 1.59041
1.43195 0.373745 1.59235
1.44232 0.374487 1.59527
1.45183 0.374981 1.59721
1.46314 0.37597 1.6011
1.4736 0.376712 1.60401
1.48499 0.377701 1.6079
1.4955 0.378442 1.61082
1.50696 0.379431 1.61471
1.51662 0.379926 1.61665
1.52631 0.38042 1.6186
1.53601 0.380915 1.62054
1.5448 0.381162 1.62151
1.5536 0.381409 1.62248
1.56241 0.381657 1.62346
1.57123 0.381904 1.62443
1.58006 0.382151 1.6254
1.5889 0.382398 1.62637
1.59775 0.382646 1.62734
1.60661 0.382893 1.62832
1.61548 0.38314 1.62929
1.62435 0.383387 1.63026
1.63226 0.383387 1.63026
1.64115 0.383635 1.63123
1.65006 0.383882 1.6322
1.65798 0.383882 1.6322
-0.767489 0.33248 1.40256
-0.761205 0.332732 1.40353
-0.754911 0.332984 1.4045
-0.748088 0.332984 1.4045
-0.74178 0.333236 1.40547
-0.735463 0.333487 1.40644
-0.728631 0.333487 1.40644
-0.721799 0.333487 1.40644
-0.714968 0.333487 1.40644
-0.708626 0.333739 1.40741
-0.70179 0.333739 1.40741
-0.695435 0.333991 1.40838
-0.68907 0.334242 1.40935
-0.682695 0.334494 1.41033
-0.676778 0.334998 1.41227
-0.669918 0.334998 1.41227
-0.663515 0.335249 1.41324
-0.656651 0.335249 1.41324
-0.649786 0.335249 1.41324
-0.642921 0.335249 1.41324
-0.636056 0.335249 1.41324
-0.629625 0.335501 1.41421
-0.622756 0.335501 1.41421
-0.615886 0.335501 1.41421
-0.608597 0.335249 1.41324
-0.601732 0.335249 1.41324
-0.594867 0.335249 1.41324
-0.588003 0.335249 1.41324
-0.581538 0.335501 1.41421
-0.575065 0.335753 1.41518
-0.568581 0.336005 1.41615
-0.562089 0.336256 1.41712
-0.555587 0.336508 1.41809
-0.548698 0.336508 1.41809
-0.54181 0.336508 1.41809
-0.534921 0.336508 1.41809
-0.528033 0.336508 1.41809
-0.521502 0.33676 1.41906
-0.514609 0.33676 1.41906
-0.507716 0.33676 1.41906
-0.500823 0.33676 1.41906
-0.494269 0.337011 1.42003
-0.487371 0.337011 1.42003
-0.480473 0.337011 1.42003
-0.473575 0.337011 1.42003
-0.466997 0.337263 1.421
-0.46041 0.337515 1.42197
-0.453813 0.337767 1.42294
-0.447513 0.33827 1.42488
-0.440892 0.338522 1.42585
-0.434262 0.338773 1.42682
-0.427623 0.339025 1.42779
-0.420974 0.339277 1.42877
-0.414034 0.339277 1.42877
-0.407371 0.339529 1.42974
-0.400426 0.339529 1.42974
-0.393749 0.33978 1.43071
-0.386799 0.33978 1.43071
-0.380107 0.340032 1.43168
-0.373406 0.340284 1.43265
-0.366447 0.340284 1.43265
-0.359732 0.340536 1.43362
-0.352768 0.340536 1.43362
-0.345804 0.340536 1.43362
-0.3393 0.341039 1.43556
-0.138486 0.15124 0.70378
-0.135079 0.15124 0.70378
-0.131856 0.151492 0.704751
-0.128445 0.151492 0.704751
-0.12486 0.15124 0.70378
-0.121454 0.15124 0.70378
-0.118047 0.15124 0.70378
-0.114641 0.15124 0.70378
-0.111235 0.15124 0.70378
-0.107828 0.15124 0.70378
-0.104422 0.15124 0.70378
-0.101156 0.151492 0.704751
-0.0977448 0.151492 0.704751
-0.0944646 0.151744 0.705722
-0.0910487 0.151744 0.705722
-0.0875115 0.151492 0.704751
-0.0843337 0.151995 0.706692
-0.0809131 0.151995 0.706692
-0.0775997 0.152247 0.707663
-0.0741744 0.152247 0.707663
-0.0707491 0.152247 0.707663
-0.0673238 0.152247 0.707663
-0.0638986 0.152247 0.707663
-0.0604733 0.152247 0.707663
-0.0571268 0.152499 0.708633
-0.0536967 0.152499 0.708633
-0.0502667 0.152499 0.708633
-0.0468367 0.152499 0.708633
-0.0434665 0.152751 0.709604
-0.0400317 0.152751 0.709604
-0.036597 0.152751 0.709604
-0.0331622 0.152751 0.709604
-0.0297275 0.152751 0.709604
-0.0262927 0.152751 0.709604
-0.022858 0.152751 0.709604
-0.0194232 0.152751 0.709604
-0.0159884 0.152751 0.709604
-0.0125537 0.152751 0.709604
-0.00913148 0.153002 0.710574
-0.00569981 0.153254 0.711545
-0.00225559 0.153254 0.711545
0.00119026 0.153506 0.712515
0.00464558 0.153757 0.713486
0.00809926 0.153757 0.713486
0.0115688 0.154009 0.714456
0.0150272 0.154009 0.714456
0.0184856 0.154009 0.714456
0.021944 0.154009 0.714456
0.0254024 0.154009 0.714456
0.0288608 0.154009 0.714456
0.0323193 0.154009 0.714456
0.0357777 0.154009 0.714456
0.0392898 0.154261 0.715427
0.0427529 0.154261 0.715427
0.0462161 0.154261 0.715427
0.0496792 0.154261 0.715427
0.053215 0.154513 0.716397
0.0566828 0.154513 0.716397
0.0601507 0.154513 0.716397
0.0636186 0.154513 0.716397
0.067178 0.154764 0.717368
0.0706506 0.154764 0.717368
0.0742242 0.155016 0.718338
0.0777015 0.155016 0.718338
0.0812893 0.155268 0.719309
0.0847714 0.155268 0.719309
0.0883734 0.15552 0.720279
0.0918602 0.15552 0.720279
0.0954763 0.155771 0.72125
0.0989679 0.155771 0.72125
0.102459 0.155771 0.72125
0.106094 0.156023 0.722221
0.109591 0.156023 0.722221
0.113087 0.156023 0.722221
0.116583 0.156023 0.722221
0.12008 0.156023 0.722221
0.123743 0.156275 0.723191
0.127244 0.156275 0.723191
0.130922 0.156526 0.724162
0.134609 0.156778 0.725132
0.138119 0.156778 0.725132
0.141821 0.15703 0.726103
0.145336 0.15703 0.726103
0.149051 0.157282 0.727073
0.152571 0.157282 0.727073
0.156301 0.157533 0.728044
0.159826 0.157533 0.728044
0.16335 0.157533 0.728044
0.166875 0.157533 0.728044
0.1704 0.157533 0.728044
0.173924 0.157533 0.728044
0.177449 0.157533 0.728044
0.180974 0.157533 0.728044
0.184498 0.157533 0.728044
0.18777 0.157282 0.727073
0.19129 0.157282 0.727073
0.19481 0.157282 0.727073
0.198064 0.15703 0.726103
0.201579 0.15703 0.726103
0.205094 0.15703 0.726103
0.208609 0.15703 0.726103
0.212124 0.15703 0.726103
0.21564 0.15703 0.726103
0.21886 0.156778 0.725132
0.22237 0.156778 0.725132
0.225576 0.156526 0.724162
0.496982 0.356898 1.4967
0.504254 0.356898 1.4967
0.511859 0.357149 1.49767
0.519472 0.357401 1.49864
0.526754 0.357401 1.49864
0.534382 0.357653 1.49961
0.542019 0.357904 1.50058
0.549666 0.358156 1.50155
0.557323 0.358408 1.50253
0.564989 0.35866 1.5035
0.572294 0.35866 1.5035
0.579974 0.358911 1.50447
0.587283 0.358911 1.50447
0.594593 0.358911 1.50447
0.602292 0.359163 1.50544
0.609212 0.358911 1.50447
0.616521 0.358911 1.50447
0.623831 0.358911 1.50447
0.631549 0.359163 1.50544
0.638863 0.359163 1.50544
0.646177 0.359163 1.50544
0.653914 0.359415 1.50641
0.661233 0.359415 1.50641
0.668984 0.359666 1.50738
0.676308 0.359666 1.50738
0.684073 0.359918 1.50835
0.691848 0.36017 1.50932
0.699181 0.36017 1.50932
0.70697 0.360422 1.51029
0.715229 0.360925 1.51223
0.723042 0.361177 1.5132
0.730864 0.361429 1.51417
0.73917 0.361932 1.51611
0.747496 0.362435 1.51805
0.755356 0.362687 1.51902
0.763714 0.363191 1.52097
0.771597 0.363442 1.52194
0.779491 0.363694 1.52291
0.787393 0.363946 1.52388
0.794797 0.363946 1.52388
0.802201 0.363946 1.52388
0.809088 0.363694 1.52291
0.816487 0.363694 1.52291
0.82336 0.363442 1.52194
0.829692 0.362939 1.51999
0.836541 0.362687 1.51902
0.84338 0.362435 1.51805
0.85021 0.362184 1.51708
0.857031 0.361932 1.51611
0.864397 0.361932 1.51611
0.871763 0.361932 1.51611
0.879694 0.362184 1.51708
0.887065 0.362184 1.51708
0.89501 0.362435 1.51805
0.902965 0.362687 1.51902
0.910929 0.362939 1.51999
0.918903 0.363191 1.52097
0.926885 0.363442 1.52194
0.93428 0.363442 1.52194
0.942277 0.363694 1.52291
0.950284 0.363946 1.52388
0.957688 0.363946 1.52388
0.965709 0.364197 1.52485
0.973739 0.364449 1.52582
0.981153 0.364449 1.52582
0.989197 0.364701 1.52679
0.997887 0.365204 1.52873
1.00595 0.365456 1.5297
1.01468 0.36596 1.53164
1.02342 0.366463 1.53358
1.03218 0.366966 1.53552
1.04096 0.36747 1.53746
1.04976 0.367973 1.53941
1.05857 0.368477 1.54135
1.06741 0.36898 1.54329
1.07627 0.369484 1.54523
1.08514 0.369987 1.54717
1.09403 0.370491 1.54911
1.10225 0.370742 1.55008
1.11048 0.370994 1.55105
1.11872 0.371246 1.55202
1.12626 0.371246 1.55202
1.13451 0.371497 1.55299
1.14206 0.371497 1.55299
1.14961 0.371497 1.55299
1.15715 0.371497 1.55299
1.16543 0.371749 1.55396
1.17298 0.371749 1.55396
1.18127 0.372001 1.55493
1.18957 0.372253 1.5559
1.19788 0.372504 1.55687
1.2062 0.372756 1.55785
1.21528 0.37326 1.55979
1.22363 0.373511 1.56076
1.23275 0.374015 1.5627
1.24189 0.374518 1.56464
1.25027 0.37477 1.56561
1.25866 0.375022 1.56658
1.26706 0.375273 1.56755
1.27467 0.375273 1.56755
1.28229 0.375273 1.56755
1.28991 0.375273 1.56755
1.29672 0.375022 1.56658
1.30433 0.375022 1.56658
1.31113 0.37477 1.56561
1.31791 0.374518 1.56464
1.32469 0.374266 1.56367
1.33229 0.374266 1.56367
1.33905 0.374015 1.5627
1.34665 0.374015 1.5627
1.35508 0.374266 1.56367
1.36268 0.374266 1.56367
1.37199 0.37477 1.56561
1.38131 0.375273 1.56755
1.39065 0.375777 1.56949
1.40001 0.37628 1.57143
1.41027 0.377035 1.57434
1.41967 0.377539 1.57629
1.42909 0.378042 1.57823
1.43942 0.378797 1.58114
1.44889 0.379301 1.58308
1.45837 0.379804 1.58502
1.46878 0.380559 1.58793
1.4783 0.381063 1.58987
1.48785 0.381566 1.59181
1.49741 0.38207 1.59376
1.50608 0.382322 1.59473
1.51475 0.382573 1.5957
1.52343 0.382825 1.59667
1.53213 0.383077 1.59764
1.53989 0.383077 1.59764
1.5486 0.383328 1.59861
1.55731 0.38358 1.59958
1.56604 0.383832 1.60055
1.57477 0.384084 1.60152
1.58352 0.384335 1.60249
1.59227 0.384587 1.60346
1.60007 0.384587 1.60346
1.60883 0.384839 1.60443
1.61761 0.38509 1.6054
1.62541 0.38509 1.6054
1.6342 0.385342 1.60637
-0.755764 0.333297 1.37906
-0.749055 0.333297 1.37906
-0.74287 0.333553 1.38003
-0.736675 0.333809 1.381
-0.730471 0.334066 1.38197
-0.723748 0.334066 1.38197
-0.71753 0.334322 1.38293
-0.710802 0.334322 1.38293
-0.704075 0.334322 1.38293
-0.697347 0.334322 1.38293
-0.691105 0.334578 1.3839
-0.684373 0.334578 1.3839
-0.678117 0.334834 1.38487
-0.672323 0.335347 1.38681
-0.666043 0.335603 1.38778
-0.659292 0.335603 1.38778
-0.652998 0.335859 1.38875
-0.646242 0.335859 1.38875
-0.639486 0.335859 1.38875
-0.63273 0.335859 1.38875
-0.625974 0.335859 1.38875
-0.619652 0.336115 1.38972
-0.612891 0.336115 1.38972
-0.60613 0.336115 1.38972
-0.59937 0.336115 1.38972
-0.592194 0.335859 1.38875
-0.585848 0.336115 1.38972
-0.579087 0.336115 1.38972
-0.572727 0.336372 1.39069
-0.566358 0.336628 1.39166
-0.559978 0.336884 1.39262
-0.55359 0.33714 1.39359
-0.54681 0.33714 1.39359
-0.540031 0.33714 1.39359
-0.533251 0.33714 1.39359
-0.526839 0.337396 1.39456
-0.520054 0.337396 1.39456
-0.51327 0.337396 1.39456
-0.506486 0.337396 1.39456
-0.50005 0.337653 1.39553
-0.493261 0.337653 1.39553
-0.486472 0.337653 1.39553
-0.479682 0.337653 1.39553
-0.472893 0.337653 1.39553
-0.466429 0.337909 1.3965
-0.459955 0.338165 1.39747
-0.453472 0.338421 1.39844
-0.446979 0.338677 1.39941
-0.440477 0.338934 1.40038
-0.433966 0.33919 1.40135
-0.427445 0.339446 1.40231
-0.420914 0.339702 1.40328
-0.414087 0.339702 1.40328
-0.407543 0.339958 1.40425
-0.400711 0.339958 1.40425
-0.394152 0.340215 1.40522
-0.387316 0.340215 1.40522
-0.380743 0.340471 1.40619
-0.373901 0.340471 1.40619
-0.367314 0.340727 1.40716
-0.360717 0.340983 1.40813
-0.353867 0.340983 1.40813
-0.347256 0.341239 1.4091
-0.3404 0.341239 1.4091
-0.333315 0.340983 1.40813
-0.138678 0.154723 0.703657
-0.135079 0.154467 0.702688
-0.131673 0.154467 0.702688
-0.128267 0.154467 0.702688
-0.124687 0.154211 0.701719
-0.121285 0.154211 0.701719
-0.11772 0.153954 0.70075
-0.114323 0.153954 0.70075
-0.11108 0.154211 0.701719
-0.107679 0.154211 0.701719
-0.104277 0.154211 0.701719
-0.101016 0.154467 0.702688
-0.0976093 0.154467 0.702688
-0.0942029 0.154467 0.702688
-0.0909226 0.154723 0.703657
-0.0875115 0.154723 0.703657
-0.084217 0.154979 0.704626
-0.0808012 0.154979 0.704626
-0.0773854 0.154979 0.704626
-0.0739695 0.154979 0.704626
-0.0705537 0.154979 0.704626
-0.0671379 0.154979 0.704626
-0.063722 0.154979 0.704626
-0.0603062 0.154979 0.704626
-0.0569692 0.155235 0.705595
-0.0535486 0.155235 0.705595
-0.050128 0.155235 0.705595
-0.0467075 0.155235 0.705595
-0.0433468 0.155492 0.706564
-0.0399215 0.155492 0.706564
-0.0364962 0.155492 0.706564
-0.0330709 0.155492 0.706564
-0.0296456 0.155492 0.706564
-0.0262203 0.155492 0.706564
-0.022795 0.155492 0.706564
-0.0193697 0.155492 0.706564
-0.0159444 0.155492 0.706564
-0.0125364 0.155748 0.707533
-0.00910635 0.155748 0.707533
-0.00568416 0.156004 0.708502
-0.0022494 0.156004 0.708502
0.001187 0.15626 0.709471
0.00462649 0.15626 0.709471
0.00807707 0.156516 0.71044
0.0115213 0.156516 0.71044
0.0149655 0.156516 0.71044
0.0184097 0.156516 0.71044
0.021854 0.156516 0.71044
0.0252982 0.156516 0.71044
0.0287424 0.156516 0.71044
0.0321866 0.156516 0.71044
0.0356798 0.156773 0.711409
0.0391287 0.156773 0.711409
0.0426361 0.157029 0.712379
0.0460898 0.157029 0.712379
0.0495435 0.157029 0.712379
0.0530698 0.157285 0.713347
0.0565282 0.157285 0.713347
0.0599866 0.157285 0.713347
0.063445 0.157285 0.713347
0.0669949 0.157541 0.714316
0.0704581 0.157541 0.714316
0.0740222 0.157797 0.715286
0.0774901 0.157797 0.715286
0.080958 0.157797 0.715286
0.084541 0.158054 0.716255
0.0880136 0.158054 0.716255
0.0916109 0.15831 0.717223
0.0950882 0.15831 0.717223
0.0986997 0.158566 0.718193
0.102182 0.158566 0.718193
0.105664 0.158566 0.718193
0.109294 0.158822 0.719162
0.112781 0.158822 0.719162
0.116268 0.158822 0.719162
0.119917 0.159078 0.720131
0.123409 0.159078 0.720131
0.127072 0.159335 0.7211
0.130568 0.159335 0.7211
0.134246 0.159591 0.722069
0.137933 0.159847 0.723038
0.141439 0.159847 0.723038
0.14514 0.160103 0.724007
0.148651 0.160103 0.724007
0.152161 0.160103 0.724007
0.155881 0.160359 0.724976
0.159397 0.160359 0.724976
0.162912 0.160359 0.724976
0.166427 0.160359 0.724976
0.169942 0.160359 0.724976
0.173457 0.160359 0.724976
0.176973 0.160359 0.724976
0.180488 0.160359 0.724976
0.183755 0.160103 0.724007
0.187266 0.160103 0.724007
0.190776 0.160103 0.724007
0.194025 0.159847 0.723038
0.197531 0.159847 0.723038
0.201036 0.159847 0.723038
0.204542 0.159847 0.723038
0.208048 0.159847 0.723038
0.211839 0.160103 0.724007
0.215349 0.160103 0.724007
